0.109562 0.034710 0.607000
0.067960 0.036117 0.604000
0.070328 0.036117 0.604000
0.074277 0.036117 0.604000
0.086911 0.036117 0.604000
0.090069 0.037697 0.604000
0.094070 0.037717 0.604333
0.098129 0.037758 0.605000
0.102083 0.037757 0.605000
0.106116 0.037785 0.605444
0.110174 0.037820 0.606000
0.114219 0.037848 0.606444
0.118226 0.037862 0.606667
0.091649 0.040855 0.604000
0.094807 0.040855 0.604000
0.097966 0.040855 0.604000
0.101124 0.040855 0.604000
0.105862 0.040855 0.604000
0.109810 0.040855 0.604000
0.114150 0.041514 0.604400
0.117999 0.041747 0.605500
0.117970 0.044540 0.604000
0.029766 -0.057402 0.611000
-0.038259 0.006974 0.610500
-0.034268 0.006974 0.610500
-0.031368 0.007247 0.611000
0.009637 0.007779 0.611000
0.012832 0.007779 0.611000
-0.038165 0.010143 0.609000
-0.034184 0.010143 0.609000
-0.030260 0.010161 0.610167
-0.026575 0.010442 0.611000
-0.023912 0.010975 0.611000
0.002448 0.010975 0.611000
0.005643 0.010176 0.611000
0.009632 0.010170 0.610667
0.013631 0.010176 0.611000
0.016826 0.010975 0.611000
-0.036513 0.012510 0.608000
-0.034128 0.012510 0.608000
-0.030186 0.012524 0.608667
-0.025943 0.013054 0.608667
-0.022259 0.013337 0.609500
-0.018557 0.013614 0.610000
-0.014318 0.014162 0.610667
-0.010333 0.014170 0.611000
-0.006326 0.014778 0.609800
-0.002181 0.014458 0.609800
0.001646 0.014142 0.609889
0.005629 0.014134 0.609500
0.009611 0.014130 0.609333
0.013944 0.014366 0.609714
0.017806 0.013955 0.610375
0.021452 0.014484 0.610800
0.025613 0.014969 0.611000
0.029607 0.014969 0.611000
0.033600 0.014969 0.611000
0.038393 0.015767 0.611000
0.042387 0.015767 0.611000
0.046780 0.015368 0.611000
0.050375 0.015767 0.611000
0.052771 0.015767 0.611000
0.010384 0.017280 0.608000
0.014055 0.017933 0.608600
0.018348 0.018089 0.608500
0.022332 0.018094 0.608667
0.026325 0.018104 0.609000
0.030315 0.018109 0.609167
0.034315 0.018118 0.609500
0.038299 0.018118 0.609500
0.042283 0.018118 0.609500
0.046254 0.018114 0.609333
0.050251 0.018118 0.609500
0.054325 0.018149 0.610500
0.058097 0.018430 0.611000
0.087918 0.018962 0.611000
0.090314 0.018164 0.611000
0.094308 0.018962 0.611000
0.098036 0.018430 0.611000
0.101764 0.018430 0.611000
0.107089 0.018962 0.611000
0.027077 0.020459 0.608000
0.030256 0.020459 0.608000
0.034287 0.020493 0.609000
0.038225 0.020470 0.608333
0.042179 0.020459 0.608000
0.046153 0.020459 0.608000
0.050421 0.021000 0.608333
0.054182 0.022081 0.608889
0.058267 0.022120 0.610000
0.062255 0.022120 0.610000
0.066297 0.022138 0.610500
0.070306 0.022145 0.610667
0.074309 0.022947 0.610750
0.078311 0.022950 0.610833
0.082282 0.022145 0.610667
0.086226 0.022132 0.610333
0.090167 0.022120 0.610000
0.094206 0.022132 0.610333
0.098249 0.022145 0.610667
0.102278 0.022153 0.610889
0.106261 0.022151 0.610833
0.110062 0.022352 0.610875
0.114278 0.023755 0.611000
0.054897 0.025228 0.608000
0.058124 0.026044 0.608500
0.062112 0.025889 0.608600
0.066107 0.026055 0.608750
0.070114 0.026066 0.609000
0.074126 0.026076 0.609250
0.078097 0.026073 0.609167
0.081990 0.026044 0.608500
0.085635 0.025881 0.608400
0.089871 0.025228 0.608000
0.094256 0.025889 0.608600
0.097981 0.026066 0.609000
0.102018 0.026080 0.609333
0.105985 0.026076 0.609250
0.110224 0.026137 0.610667
0.114278 0.026152 0.611000
0.116674 0.026950 0.611000
0.066025 0.028408 0.608000
0.069999 0.028408 0.608000
0.074280 0.028953 0.608333
0.077582 0.028817 0.608250
0.095435 0.028408 0.608000
0.097860 0.029214 0.608250
0.101850 0.029218 0.608333
0.105884 0.030030 0.608667
0.109964 0.030057 0.609222
0.114029 0.030078 0.609667
0.118017 0.030595 0.610857
0.110140 0.033574 0.608000
0.113764 0.033985 0.608250
0.117821 0.034009 0.608667
0.029775 -0.064479 0.614500
0.033803 -0.064496 0.614667
0.037779 -0.064426 0.614000
0.041839 -0.064496 0.614667
0.027366 -0.062069 0.614500
0.029715 -0.061943 0.613250
0.033711 -0.061918 0.613000
0.037733 -0.061943 0.613250
0.041782 -0.062002 0.613833
0.045862 -0.062094 0.614750
0.049097 -0.061315 0.615000
0.026518 -0.057958 0.613500
0.028855 -0.059416 0.612000
0.033655 -0.057816 0.612000
0.037656 -0.057816 0.612000
0.041763 -0.057962 0.613556
0.045806 -0.058005 0.614000
0.049901 -0.058099 0.615000
0.053921 -0.057295 0.615000
0.058745 -0.056491 0.615000
0.026823 -0.054287 0.614333
0.029691 -0.053880 0.612750
0.033692 -0.053873 0.612667
0.037733 -0.053924 0.613250
0.041816 -0.054020 0.614333
0.045881 -0.054079 0.615000
0.049097 -0.054079 0.615000
0.029800 -0.051667 0.615000
0.034120 -0.050990 0.614600
0.037810 -0.050821 0.614500
0.041861 -0.051667 0.615000
0.045881 -0.051667 0.615000
0.009700 -0.008250 0.615000
0.012916 -0.008250 0.615000
-0.017637 -0.005034 0.615000
0.002732 -0.005570 0.615000
0.005680 -0.005838 0.615000
0.009700 -0.005838 0.615000
0.013720 -0.005838 0.615000
0.016132 -0.005034 0.615000
0.021760 -0.005034 0.615000
-0.037737 -0.000210 0.615000
-0.033315 -0.000612 0.615000
-0.029697 -0.001014 0.615000
-0.026749 -0.000746 0.615000
-0.021389 -0.000746 0.615000
-0.017905 -0.001550 0.615000
-0.014421 -0.000210 0.615000
-0.001556 -0.000210 0.615000
0.001658 -0.001817 0.614667
0.005671 -0.001815 0.614000
0.009684 -0.001815 0.614000
0.013702 -0.001816 0.614167
0.017728 -0.001817 0.614556
0.021748 -0.001818 0.614667
0.025545 -0.001358 0.614857
0.029532 -0.000746 0.615000
0.034142 -0.000853 0.615000
0.037820 -0.001818 0.614667
0.041846 -0.001818 0.614778
0.045720 -0.001496 0.615000
0.048293 -0.000210 0.615000
-0.037645 0.002196 0.613500
-0.033643 0.002197 0.613667
-0.029660 0.002199 0.614250
-0.025662 0.002201 0.614667
-0.021657 0.002202 0.615000
-0.017637 0.002202 0.615000
-0.014421 0.003006 0.615000
-0.001556 0.002202 0.615000
0.001655 0.002198 0.613833
0.005661 0.002195 0.613000
0.009676 0.002196 0.613500
0.013681 0.002196 0.613250
0.017711 0.002199 0.614000
0.021725 0.002199 0.614000
0.025738 0.002199 0.614000
0.029776 0.002200 0.614500
0.033774 0.002199 0.614167
0.037779 0.002199 0.614000
0.041793 0.002199 0.614000
0.045862 0.002201 0.614750
0.048829 0.002470 0.615000
0.080453 0.003006 0.615000
-0.038353 0.004592 0.612000
-0.034353 0.004592 0.612000
-0.029827 0.005660 0.612167
-0.025808 0.006004 0.613375
-0.021970 0.006442 0.614143
-0.017620 0.006216 0.614444
-0.013613 0.006220 0.614833
-0.010401 0.006222 0.615000
-0.006377 0.006218 0.614667
-0.002359 0.006216 0.614500
0.001653 0.006200 0.612889
0.005652 0.006192 0.612000
0.009653 0.005392 0.612000
0.013818 0.005873 0.612200
0.017673 0.006198 0.612667
0.021689 0.006202 0.613000
0.025730 0.006210 0.613778
0.029752 0.006212 0.614000
0.033747 0.006209 0.613667
0.037759 0.006208 0.613667
0.041785 0.006211 0.613889
0.045806 0.006212 0.614000
0.049874 0.006218 0.614667
0.053921 0.007026 0.615000
0.058142 0.006423 0.615000
0.061800 0.006544 0.615000
0.066383 0.007428 0.615000
0.069840 0.006544 0.615000
0.074021 0.007026 0.615000
0.077999 0.006218 0.614667
0.081988 0.006216 0.614444
0.085921 0.006544 0.615000
0.090303 0.006423 0.615000
0.094390 0.007294 0.615000
0.098142 0.007830 0.615000
0.102162 0.007830 0.615000
0.106182 0.007830 0.615000
0.110470 0.007294 0.615000
0.113418 0.007830 0.615000
-0.025552 0.009392 0.612000
-0.022045 0.010039 0.612400
-0.017905 0.010051 0.613200
-0.014066 0.010379 0.613600
-0.010375 0.010217 0.613500
-0.006365 0.010217 0.613500
-0.002352 0.010204 0.612750
0.001252 0.009792 0.612000
0.018054 0.009792 0.612000
0.021654 0.010192 0.612000
0.025675 0.010200 0.612500
0.029679 0.010200 0.612500
0.033683 0.010201 0.612500
0.037687 0.010200 0.612500
0.041747 0.010214 0.613333
0.045806 0.010226 0.614000
0.049793 0.010220 0.613667
0.053833 0.010226 0.614000
0.057863 0.010228 0.614167
0.061911 0.010233 0.614500
0.065928 0.010233 0.614500
0.069916 0.010230 0.614250
0.073901 0.010226 0.614000
0.077915 0.010226 0.614000
0.081928 0.010226 0.614000
0.086012 0.010233 0.614500
0.090077 0.010239 0.614833
0.094045 0.010233 0.614500
0.098062 0.010233 0.614500
0.102121 0.010238 0.614750
0.106066 0.010231 0.614333
0.110113 0.010233 0.614500
0.114192 0.010239 0.614833
0.117974 0.010510 0.615000
-0.017551 0.012593 0.612000
-0.014350 0.012593 0.612000
-0.010350 0.012593 0.612000
-0.006349 0.012593 0.612000
-0.003149 0.012593 0.612000
0.022454 0.012593 0.612000
0.025655 0.012593 0.612000
0.029655 0.012593 0.612000
0.033655 0.012593 0.612000
0.037656 0.013393 0.612000
0.041656 0.013393 0.612000
0.045675 0.013398 0.612250
0.049977 0.013233 0.612000
0.053853 0.013881 0.612400
0.057722 0.014207 0.612667
0.061794 0.014223 0.613333
0.065838 0.014231 0.613667
0.069830 0.014227 0.613500
0.073834 0.014226 0.613444
0.077830 0.014223 0.613333
0.081706 0.014200 0.612333
0.085779 0.014211 0.612833
0.089776 0.014209 0.612778
0.093816 0.014214 0.613000
0.097823 0.014214 0.613000
0.101830 0.014214 0.613000
0.105798 0.014210 0.612778
0.109784 0.014207 0.612667
0.114037 0.014239 0.614000
0.118115 0.014247 0.614333
0.059259 0.017393 0.612000
0.061659 0.018193 0.612000
0.065659 0.018193 0.612000
0.069660 0.018193 0.612000
0.073660 0.018193 0.612000
0.077661 0.018193 0.612000
0.081661 0.018193 0.612000
0.085662 0.018193 0.612000
0.088062 0.017393 0.612000
0.093663 0.017393 0.612000
0.097663 0.017393 0.612000
0.102464 0.018193 0.612000
0.105664 0.017793 0.612000
0.109665 0.018193 0.612000
0.113790 0.018213 0.612667
0.118050 0.018253 0.614000
0.074460 0.020594 0.612000
0.077661 0.020594 0.612000
0.080061 0.020594 0.612000
0.113985 0.021234 0.612000
0.117890 0.022235 0.613167
0.117932 0.025928 0.612000
0.118466 0.028595 0.612000
0.027611 -0.068298 0.620000
0.029969 -0.068133 0.618500
0.034005 -0.068114 0.618333
0.038087 -0.068188 0.619000
0.041358 -0.068243 0.619500
0.026997 -0.065420 0.618333
0.029872 -0.066301 0.616500
0.033895 -0.066283 0.616333
0.037933 -0.066301 0.616500
0.042020 -0.066390 0.617333
0.046086 -0.065629 0.617750
0.049869 -0.065557 0.618600
0.054316 -0.065003 0.619500
0.056791 -0.065056 0.620000
0.022748 -0.060193 0.620000
0.025096 -0.062423 0.618000
0.050426 -0.062674 0.616500
0.054075 -0.062296 0.616750
0.057919 -0.062282 0.618200
0.061621 -0.062321 0.619667
0.065402 -0.060701 0.619667
0.068139 -0.060193 0.620000
0.022711 -0.057668 0.619000
0.024251 -0.058288 0.617000
0.054009 -0.059804 0.616000
0.057832 -0.058681 0.616286
0.062129 -0.058258 0.616667
0.065917 -0.057357 0.617400
0.070040 -0.057886 0.619600
0.022748 -0.054519 0.620000
0.024713 -0.053577 0.618500
0.051593 -0.054167 0.616000
0.054052 -0.054210 0.616500
0.058082 -0.054210 0.616500
0.062163 -0.054255 0.617000
0.065857 -0.053777 0.618143
0.069728 -0.053683 0.619714
0.026901 -0.050673 0.618600
0.029933 -0.049473 0.617750
0.033541 -0.049031 0.617250
0.037964 -0.048608 0.617000
0.042009 -0.049428 0.617167
0.046067 -0.049454 0.617500
0.050072 -0.050229 0.617111
0.054169 -0.050288 0.617833
0.058193 -0.050275 0.617667
0.062331 -0.050356 0.618667
0.065681 -0.049635 0.619750
0.068139 -0.050466 0.620000
0.030853 -0.047224 0.620000
0.034076 -0.047198 0.619667
0.038117 -0.046375 0.619500
0.042167 -0.046375 0.619500
0.046216 -0.046375 0.619500
0.050266 -0.046375 0.619500
0.054315 -0.046375 0.619500
0.057555 -0.046375 0.619500
0.061654 -0.047224 0.620000
-0.019401 -0.029391 0.620000
-0.029938 -0.024528 0.620000
-0.025480 -0.024933 0.620000
-0.021833 -0.026149 0.620000
-0.018012 -0.025686 0.620000
-0.038044 -0.022096 0.620000
-0.033982 -0.022091 0.619833
-0.029914 -0.022079 0.619500
-0.025865 -0.022079 0.619500
-0.021798 -0.022061 0.619000
-0.017765 -0.022079 0.619500
-0.013997 -0.021826 0.620000
-0.009675 -0.022096 0.620000
-0.005622 -0.021286 0.620000
-0.002380 -0.021286 0.620000
0.001673 -0.022096 0.620000
0.005726 -0.022096 0.620000
0.009779 -0.021934 0.620000
0.013832 -0.021286 0.620000
0.017884 -0.021286 0.620000
-0.037973 -0.018010 0.618833
-0.033918 -0.018006 0.618667
-0.029866 -0.018001 0.618500
-0.025816 -0.017996 0.618333
-0.021780 -0.018001 0.618500
-0.017742 -0.018006 0.618667
-0.013713 -0.018025 0.619333
-0.009663 -0.018022 0.619222
-0.005616 -0.018025 0.619333
-0.002377 -0.018025 0.619333
0.001671 -0.018018 0.619111
0.005720 -0.018025 0.619333
0.009768 -0.018025 0.619333
0.013817 -0.018025 0.619333
0.017865 -0.018025 0.619333
0.021920 -0.018030 0.619500
0.025787 -0.017841 0.620000
0.029232 -0.016423 0.620000
0.051928 -0.017233 0.620000
0.053954 -0.017638 0.620000
-0.037921 -0.013946 0.618000
-0.033854 -0.013935 0.617500
-0.029806 -0.013929 0.617250
-0.025760 -0.013923 0.617000
-0.021736 -0.013929 0.617250
-0.017708 -0.013935 0.617500
-0.013688 -0.013952 0.618250
-0.009641 -0.013942 0.617833
-0.005599 -0.013935 0.617500
-0.002370 -0.013935 0.617500
0.001667 -0.013935 0.617500
0.005703 -0.013935 0.617500
0.009739 -0.013935 0.617500
0.013782 -0.013940 0.617750
0.017837 -0.013954 0.618333
0.021902 -0.013968 0.619000
0.025962 -0.013976 0.619333
0.030043 -0.013991 0.620000
0.032474 -0.013180 0.620000
0.050847 -0.013721 0.620000
0.054359 -0.013991 0.620000
0.056791 -0.013180 0.620000
0.069760 -0.013180 0.620000
0.073002 -0.013180 0.620000
0.078406 -0.013721 0.620000
-0.037973 -0.009919 0.618833
-0.033888 -0.009908 0.618111
-0.029802 -0.009893 0.617167
-0.025760 -0.009890 0.617000
-0.021727 -0.009890 0.617000
-0.017694 -0.009890 0.617000
-0.013661 -0.009890 0.617000
-0.009628 -0.009890 0.617000
-0.005595 -0.009890 0.617000
-0.002368 -0.009890 0.617000
0.001664 -0.009885 0.616667
0.005692 -0.009880 0.616333
0.009724 -0.010689 0.616500
0.013917 -0.010207 0.616600
0.017802 -0.009893 0.617111
0.021843 -0.009896 0.617333
0.025906 -0.009908 0.618000
0.029978 -0.009918 0.618667
0.034065 -0.009930 0.619444
0.038117 -0.009121 0.619500
0.042167 -0.009121 0.619500
0.046229 -0.009934 0.619667
0.050289 -0.009935 0.619778
0.054359 -0.009938 0.620000
0.057439 -0.009614 0.620000
0.061330 -0.008965 0.620000
0.066112 -0.009533 0.620000
0.069760 -0.009938 0.620000
0.073650 -0.009614 0.620000
0.077865 -0.009938 0.620000
0.081108 -0.009128 0.620000
0.086781 -0.008317 0.620000
0.090294 -0.008857 0.620000
0.094241 -0.009732 0.619750
0.098076 -0.009934 0.619667
0.102109 -0.009932 0.619556
0.106073 -0.009614 0.620000
0.108666 -0.008317 0.620000
-0.037875 -0.005860 0.617250
-0.033827 -0.005857 0.617000
-0.029794 -0.005857 0.617000
-0.025753 -0.005856 0.616833
-0.021719 -0.005855 0.616750
-0.017672 -0.006011 0.616200
-0.013649 -0.005852 0.616500
-0.009628 -0.005857 0.617000
-0.005595 -0.005857 0.617000
-0.002368 -0.005857 0.617000
0.000589 -0.006119 0.616333
0.018091 -0.006008 0.616000
0.021796 -0.006653 0.616000
0.025858 -0.005856 0.616833
0.029897 -0.005857 0.617000
0.033930 -0.005857 0.617000
0.037964 -0.005857 0.617000
0.041997 -0.005857 0.617000
0.046049 -0.005860 0.617250
0.050159 -0.005869 0.618167
0.054272 -0.005876 0.619000
0.058031 -0.005718 0.619400
0.061959 -0.006046 0.619800
0.065707 -0.005885 0.620000
0.069722 -0.005883 0.619667
0.073782 -0.005883 0.619750
0.077740 -0.005876 0.619000
0.081885 -0.005883 0.619750
0.085971 -0.005885 0.620000
0.089878 -0.005876 0.619000
0.093899 -0.005875 0.618833
0.097892 -0.005872 0.618500
0.101963 -0.005873 0.618667
0.106107 -0.005879 0.619250
0.109963 -0.005723 0.620000
0.113530 -0.005075 0.620000
-0.037829 -0.002629 0.616500
-0.034127 -0.002791 0.616600
-0.029745 -0.003431 0.616000
-0.025182 -0.002358 0.616000
-0.021960 -0.002895 0.616000
-0.017128 -0.002358 0.616000
-0.013487 -0.002144 0.616400
-0.009626 -0.001824 0.616889
-0.005595 -0.001824 0.617000
-0.002529 -0.002146 0.616800
0.026628 -0.003431 0.616000
0.030134 -0.002896 0.616333
0.033486 -0.003030 0.616250
0.046761 -0.003431 0.616000
0.050245 -0.002025 0.616750
0.054140 -0.001826 0.617500
0.058255 -0.001829 0.618333
0.062330 -0.001830 0.618667
0.065917 -0.001599 0.618714
0.069821 -0.002032 0.618750
0.073989 -0.001598 0.618571
0.077847 -0.002031 0.618250
0.081676 -0.001828 0.618167
0.085770 -0.001829 0.618556
0.089733 -0.001828 0.618000
0.093672 -0.001826 0.617333
0.097681 -0.001825 0.617167
0.101817 -0.001827 0.617778
0.105978 -0.001829 0.618500
0.110130 -0.001831 0.619111
0.114279 -0.001832 0.619667
0.117345 -0.001508 0.619600
-0.013370 0.001937 0.616000
-0.009617 0.002207 0.616333
-0.005590 0.002207 0.616500
-0.003169 0.002206 0.616000
0.051084 0.001938 0.616333
0.054096 0.002209 0.617000
0.058114 0.002209 0.616833
0.062163 0.002209 0.617000
0.066196 0.002209 0.617000
0.070229 0.002209 0.617000
0.074262 0.002209 0.617000
0.078232 0.002207 0.616500
0.082597 0.002046 0.616600
0.086326 0.002208 0.616750
0.090297 0.002207 0.616333
0.094351 0.002207 0.616500
0.097654 0.002209 0.617000
0.101688 0.002209 0.617000
0.105721 0.002209 0.617000
0.109843 0.002211 0.617500
0.113879 0.002211 0.617500
0.118139 0.002215 0.618667
0.054009 0.004622 0.616000
0.056425 0.004622 0.616000
0.062867 0.004622 0.616000
0.065766 0.005266 0.616000
0.070920 0.004622 0.616000
0.074142 0.004622 0.616000
0.087027 0.004622 0.616000
0.088638 0.004622 0.616000
0.094006 0.005159 0.616000
0.098043 0.005591 0.616400
0.101944 0.005271 0.616600
0.106101 0.005591 0.616400
0.109709 0.005030 0.616750
0.113695 0.005431 0.616500
0.117779 0.006239 0.616778
0.119240 0.009454 0.616000
0.026116 -0.068629 0.623000
0.030115 -0.070088 0.621500
0.034170 -0.070070 0.621333
0.038271 -0.070145 0.622000
0.042302 -0.069276 0.621500
0.046441 -0.068573 0.622500
0.024976 -0.066315 0.621667
0.053694 -0.066856 0.621667
0.057833 -0.066133 0.622500
0.060227 -0.065266 0.622000
0.022267 -0.061980 0.621667
0.062617 -0.063588 0.621500
0.065971 -0.062877 0.622500
0.069985 -0.061200 0.622000
0.021195 -0.057947 0.622000
0.073820 -0.057707 0.622333
0.021748 -0.053910 0.622333
0.071611 -0.052255 0.622000
0.073913 -0.054224 0.622200
0.022858 -0.050710 0.623000
0.024976 -0.049518 0.621667
0.070289 -0.049637 0.621800
0.073355 -0.050710 0.623000
0.026908 -0.047414 0.622500
0.030164 -0.046600 0.622500
0.034612 -0.045342 0.622000
0.038301 -0.044159 0.622500
0.042337 -0.044123 0.622000
0.046328 -0.044052 0.621000
0.049576 -0.044052 0.621000
0.053721 -0.044123 0.622000
0.057787 -0.044123 0.622000
0.061871 -0.044948 0.622167
0.066061 -0.046059 0.621800
0.069705 -0.046755 0.622400
0.042382 -0.042543 0.622667
0.046440 -0.041717 0.622500
0.049696 -0.041717 0.622500
0.053380 -0.042141 0.622750
0.057880 -0.042565 0.623000
0.060324 -0.042565 0.623000
-0.024382 -0.032792 0.623000
-0.021643 -0.033299 0.622333
-0.018258 -0.033172 0.622500
-0.014608 -0.032792 0.623000
-0.029269 -0.029534 0.623000
-0.025652 -0.030147 0.622200
-0.021886 -0.030276 0.621500
-0.017506 -0.030453 0.621800
-0.014050 -0.030045 0.622333
-0.010527 -0.029510 0.622500
0.002496 -0.029534 0.623000
0.005751 -0.030336 0.622750
0.009818 -0.030324 0.622500
0.013887 -0.030324 0.622500
0.016342 -0.029534 0.623000
-0.038197 -0.025442 0.622500
-0.033869 -0.025770 0.622000
-0.030023 -0.027036 0.621750
-0.026269 -0.027184 0.621400
-0.016997 -0.027815 0.621000
-0.013760 -0.026213 0.621500
-0.009702 -0.026225 0.621778
-0.005643 -0.026249 0.622333
-0.002225 -0.025917 0.622200
0.001678 -0.026225 0.621778
0.005738 -0.026206 0.621333
0.009805 -0.026220 0.621667
0.013873 -0.026227 0.621833
0.017946 -0.026239 0.622111
0.022026 -0.025442 0.622500
0.025301 -0.024647 0.623000
0.045638 -0.025448 0.622667
0.049655 -0.026234 0.622000
0.053741 -0.026243 0.622222
0.057834 -0.025442 0.622500
0.060867 -0.025190 0.623000
-0.012938 -0.022944 0.621000
-0.005631 -0.022944 0.621000
-0.002383 -0.022944 0.621000
0.009795 -0.022944 0.621000
0.013854 -0.022944 0.621000
0.017913 -0.022944 0.621000
0.021990 -0.022151 0.621500
0.026068 -0.022162 0.621833
0.029326 -0.021355 0.622000
0.043963 -0.021355 0.622000
0.045929 -0.022338 0.622200
0.049576 -0.022132 0.621000
0.053665 -0.022144 0.621333
0.057787 -0.022168 0.622000
0.061887 -0.022180 0.622333
0.065972 -0.022186 0.622500
0.070097 -0.021389 0.623000
0.074170 -0.021389 0.623000
0.078242 -0.021389 0.623000
0.082314 -0.021389 0.623000
0.085572 -0.021389 0.623000
0.027656 -0.019697 0.621000
0.030293 -0.018422 0.621800
0.033826 -0.016896 0.622500
0.038333 -0.016502 0.623000
0.042831 -0.017882 0.622429
0.046378 -0.018093 0.621667
0.049576 -0.018073 0.621000
0.054176 -0.019155 0.621000
0.057757 -0.018093 0.621667
0.061842 -0.018099 0.621889
0.065883 -0.018093 0.621667
0.069960 -0.018096 0.621778
0.074011 -0.018093 0.621667
0.078075 -0.018093 0.621667
0.082205 -0.018107 0.622167
0.085435 -0.018102 0.622000
0.089392 -0.017662 0.622857
0.093717 -0.017317 0.623000
0.097382 -0.016909 0.623000
0.102078 -0.017036 0.622667
0.105849 -0.017303 0.622500
0.109918 -0.017303 0.622500
0.113627 -0.016903 0.622750
0.034508 -0.014190 0.621600
0.038271 -0.014036 0.622000
0.042325 -0.014033 0.621833
0.046328 -0.014013 0.621000
0.049846 -0.014284 0.621000
0.057996 -0.014292 0.621333
0.061787 -0.014021 0.621333
0.065839 -0.014019 0.621250
0.069872 -0.014176 0.621000
0.074202 -0.014284 0.621000
0.077450 -0.014284 0.621000
0.082182 -0.014036 0.622000
0.086248 -0.014036 0.622000
0.090314 -0.014036 0.622000
0.093567 -0.014036 0.622000
0.097633 -0.014036 0.622000
0.102120 -0.013865 0.621600
0.106021 -0.014190 0.621600
0.109830 -0.014036 0.622000
0.113896 -0.014036 0.622000
0.117817 -0.013780 0.622667
0.038210 -0.011578 0.621000
0.042269 -0.011578 0.621000
0.058506 -0.011578 0.621000
0.062160 -0.011172 0.621000
0.065001 -0.010766 0.621000
0.074743 -0.011578 0.621000
0.082490 -0.010365 0.621250
0.085937 -0.010426 0.621429
0.089946 -0.011043 0.621333
0.092604 -0.011578 0.621000
0.107218 -0.011578 0.621000
0.109851 -0.010283 0.621200
0.113876 -0.009969 0.621889
0.117962 -0.009970 0.622000
0.114165 -0.006303 0.621250
0.117962 -0.005904 0.622000
0.118584 -0.003459 0.621000
0.027923 -0.072348 0.627000
0.030285 -0.072117 0.625000
0.033527 -0.072060 0.624500
0.037680 -0.072194 0.625667
0.041858 -0.072348 0.627000
0.023004 -0.069069 0.627000
0.025799 -0.070103 0.625250
0.042473 -0.070370 0.624000
0.045811 -0.070483 0.625000
0.049935 -0.069724 0.625500
0.053593 -0.069286 0.625250
0.058252 -0.069069 0.627000
0.019726 -0.064151 0.627000
0.022130 -0.066451 0.625500
0.058789 -0.067107 0.624000
0.062519 -0.066605 0.625400
0.066291 -0.065633 0.625500
0.068908 -0.065790 0.627000
0.073826 -0.064151 0.627000
0.019678 -0.061545 0.625500
0.021280 -0.063079 0.624500
0.066947 -0.063844 0.624000
0.070702 -0.063513 0.624750
0.074439 -0.061521 0.625250
0.077105 -0.060872 0.627000
0.019663 -0.058227 0.625000
0.075105 -0.058949 0.624000
0.077529 -0.058047 0.626000
0.019032 -0.054538 0.625800
0.021263 -0.052423 0.624000
0.075105 -0.052423 0.624000
0.077802 -0.054228 0.626000
0.019726 -0.050216 0.627000
0.021818 -0.049730 0.624333
0.074601 -0.049730 0.624333
0.077863 -0.050176 0.626500
0.019726 -0.047757 0.627000
0.022155 -0.046054 0.626167
0.025960 -0.045492 0.624857
0.029980 -0.044833 0.624333
0.033500 -0.044265 0.624000
0.065315 -0.044265 0.624000
0.070618 -0.044673 0.624000
0.074408 -0.045969 0.625000
0.077884 -0.046092 0.626667
-0.026178 -0.041199 0.627000
-0.022079 -0.042019 0.627000
-0.017981 -0.041199 0.627000
0.022185 -0.042839 0.627000
0.026283 -0.042019 0.627000
0.030358 -0.041985 0.626500
0.034042 -0.042048 0.625000
0.037941 -0.041694 0.624600
0.041657 -0.041002 0.624000
0.044105 -0.041002 0.624000
0.054710 -0.041002 0.624000
0.057973 -0.041002 0.624000
0.062419 -0.041681 0.624400
0.066237 -0.041885 0.625000
0.069974 -0.042035 0.624800
0.074108 -0.041828 0.626600
0.077105 -0.042019 0.627000
-0.032735 -0.037101 0.627000
-0.030094 -0.037569 0.626600
-0.026118 -0.037835 0.625556
-0.021992 -0.037770 0.624500
-0.017919 -0.037794 0.624889
-0.013864 -0.037872 0.626167
-0.009775 -0.037072 0.626500
-0.005685 -0.036281 0.627000
-0.002406 -0.036281 0.627000
0.001925 -0.037435 0.626714
0.005947 -0.037546 0.626200
0.009873 -0.037862 0.626000
0.013965 -0.037862 0.626000
0.017868 -0.037686 0.626500
0.022185 -0.036281 0.627000
0.025737 -0.038467 0.627000
0.030382 -0.039560 0.627000
0.033825 -0.038248 0.627000
0.037718 -0.037879 0.626333
0.041746 -0.037819 0.625333
0.045785 -0.037779 0.624667
0.049842 -0.037758 0.624333
0.053923 -0.037758 0.624333
0.058004 -0.037758 0.624333
0.062141 -0.037792 0.624889
0.066290 -0.037829 0.625500
0.069654 -0.037879 0.626333
0.073358 -0.038155 0.627000
0.077105 -0.039560 0.627000
-0.036014 -0.033002 0.627000
-0.033542 -0.033809 0.626750
-0.030192 -0.033728 0.625250
-0.026388 -0.033834 0.624200
-0.022789 -0.034476 0.624000
-0.017079 -0.034476 0.624000
-0.013544 -0.033932 0.624000
-0.009747 -0.033696 0.624667
-0.005669 -0.033728 0.625250
-0.002401 -0.033742 0.625500
0.001685 -0.033696 0.624667
0.005768 -0.033688 0.624500
0.009850 -0.033688 0.624500
0.013932 -0.033688 0.624500
0.018029 -0.033714 0.625000
0.022167 -0.033795 0.626500
0.026283 -0.033822 0.627000
0.030109 -0.033549 0.627000
0.033934 -0.033549 0.627000
0.037749 -0.033813 0.626833
0.041774 -0.033755 0.625750
0.045810 -0.033714 0.625000
0.049855 -0.033686 0.624500
0.053967 -0.033705 0.624833
0.058066 -0.033714 0.625000
0.062151 -0.033714 0.625000
0.066343 -0.033768 0.626000
0.069728 -0.033822 0.627000
0.073007 -0.033822 0.627000
0.082843 -0.033002 0.627000
0.085302 -0.033002 0.627000
-0.038412 -0.030496 0.626000
-0.034266 -0.030446 0.625000
-0.030403 -0.030669 0.624000
-0.027684 -0.031213 0.624000
-0.013000 -0.031213 0.624000
-0.009329 -0.030805 0.624000
-0.005660 -0.030409 0.624250
-0.002397 -0.030422 0.624500
0.001276 -0.030805 0.624000
0.018332 -0.030570 0.624200
0.022106 -0.030434 0.624750
0.026220 -0.030471 0.625500
0.030526 -0.030033 0.626600
0.033643 -0.029708 0.626667
0.037502 -0.029887 0.626125
0.041724 -0.030446 0.625000
0.045773 -0.030422 0.624500
0.049815 -0.030397 0.624000
0.053894 -0.030397 0.624000
0.057973 -0.030397 0.624000
0.062103 -0.030421 0.624500
0.066290 -0.030471 0.625500
0.069645 -0.030507 0.626250
0.073787 -0.030527 0.626667
0.077736 -0.030042 0.626800
0.082001 -0.030535 0.626833
0.086053 -0.030519 0.626500
0.090413 -0.030179 0.626714
0.094282 -0.028892 0.626750
0.097598 -0.028084 0.627000
-0.038289 -0.027949 0.624000
-0.035026 -0.027949 0.624000
-0.003211 -0.027949 0.624000
0.022079 -0.027949 0.624000
0.026397 -0.026790 0.624143
0.030112 -0.026025 0.624800
0.033567 -0.025554 0.625250
0.037880 -0.025899 0.625143
0.041690 -0.026339 0.624500
0.045736 -0.027949 0.624000
0.057973 -0.027949 0.624000
0.062596 -0.026862 0.624000
0.066166 -0.026333 0.624333
0.070285 -0.026347 0.624667
0.074368 -0.026347 0.624667
0.078158 -0.025796 0.624500
0.081933 -0.026554 0.624750
0.085756 -0.026333 0.624333
0.089711 -0.026151 0.624875
0.094018 -0.025543 0.625000
0.097902 -0.025413 0.625800
0.102024 -0.025789 0.627000
0.105710 -0.025605 0.626500
0.109531 -0.025453 0.626800
0.113992 -0.024805 0.627000
0.118090 -0.024805 0.627000
0.030508 -0.022511 0.624000
0.033526 -0.022257 0.624500
0.037639 -0.022275 0.625000
0.041657 -0.022239 0.624000
0.070210 -0.023055 0.624000
0.074289 -0.023055 0.624000
0.078368 -0.023055 0.624000
0.082447 -0.023055 0.624000
0.085710 -0.023055 0.624000
0.089789 -0.022239 0.624000
0.093943 -0.022257 0.624500
0.098104 -0.022275 0.625000
0.102229 -0.022284 0.625250
0.106246 -0.022269 0.624833
0.110448 -0.022293 0.625500
0.113719 -0.022293 0.625500
0.117808 -0.022293 0.625500
0.034642 -0.019139 0.624000
0.038394 -0.018976 0.624000
0.040842 -0.018976 0.624000
0.090604 -0.019792 0.624000
0.093868 -0.019792 0.624000
0.098305 -0.019145 0.624200
0.101808 -0.019258 0.624333
0.106104 -0.019792 0.624000
0.110183 -0.019792 0.624000
0.114588 -0.019139 0.624000
0.118373 -0.018165 0.624167
0.119157 -0.014897 0.624000
0.033875 -0.076109 0.631000
0.023151 -0.072810 0.631000
0.025860 -0.073244 0.630000
0.029655 -0.074223 0.629000
0.033714 -0.074105 0.628000
0.037901 -0.074263 0.629333
0.042125 -0.074459 0.631000
0.046105 -0.072579 0.629000
0.050294 -0.072694 0.630000
0.053674 -0.072810 0.631000
0.056149 -0.072810 0.631000
0.019852 -0.069510 0.631000
0.022004 -0.070461 0.629667
0.055105 -0.070878 0.628500
0.058532 -0.071047 0.630000
0.061777 -0.069345 0.629500
0.065223 -0.069510 0.631000
0.018996 -0.066105 0.630000
0.066609 -0.067591 0.628500
0.070335 -0.067205 0.630000
0.074132 -0.066065 0.629600
0.077474 -0.064458 0.630000
0.017604 -0.061647 0.629333
0.078490 -0.062196 0.629333
0.080897 -0.061260 0.631000
0.017177 -0.058179 0.629800
0.078870 -0.059327 0.628000
0.081181 -0.057457 0.630000
0.014902 -0.053011 0.631000
0.017055 -0.053420 0.629333
0.081561 -0.053730 0.629750
0.084196 -0.053011 0.631000
-0.032944 -0.048061 0.631000
-0.030470 -0.048061 0.631000
-0.026345 -0.048061 0.631000
-0.021945 -0.048611 0.631000
-0.018920 -0.048061 0.631000
0.011602 -0.048061 0.631000
0.014242 -0.049381 0.631000
0.017328 -0.050396 0.629250
0.081463 -0.050377 0.629000
0.084746 -0.049711 0.631000
-0.033769 -0.045587 0.631000
-0.030422 -0.045515 0.630000
-0.026282 -0.045479 0.629500
-0.022167 -0.045479 0.629500
-0.018066 -0.045515 0.630000
-0.013965 -0.045569 0.630750
-0.010176 -0.045422 0.631000
-0.005721 -0.044762 0.631000
-0.002422 -0.044762 0.631000
0.001703 -0.044762 0.631000
0.005828 -0.044762 0.631000
0.010275 -0.045393 0.630600
0.014049 -0.045497 0.629750
0.017934 -0.046050 0.628875
0.081760 -0.045998 0.628571
0.085779 -0.046100 0.630500
0.089146 -0.044762 0.631000
-0.036244 -0.041462 0.631000
-0.033716 -0.042221 0.630000
-0.030361 -0.042136 0.628750
-0.026248 -0.042952 0.628667
-0.018028 -0.042952 0.628667
-0.013921 -0.042136 0.628750
-0.009827 -0.042209 0.629833
-0.005717 -0.042254 0.630500
-0.002420 -0.042254 0.630500
0.001699 -0.042221 0.630000
0.005814 -0.042187 0.629500
0.009918 -0.042142 0.628833
0.014021 -0.042120 0.628500
0.018124 -0.042109 0.628333
0.022220 -0.041265 0.628000
0.078870 -0.042086 0.628000
0.082242 -0.042131 0.628667
0.086569 -0.042237 0.630250
0.089971 -0.042287 0.631000
-0.037644 -0.037912 0.630250
-0.034073 -0.038454 0.629000
-0.031146 -0.039623 0.628000
-0.009804 -0.039644 0.628333
-0.005699 -0.038833 0.628500
-0.002412 -0.038833 0.628500
0.000874 -0.039654 0.628500
0.004979 -0.039623 0.628000
0.019757 -0.039623 0.628000
0.022220 -0.038802 0.628000
0.026599 -0.037707 0.628000
0.030454 -0.037189 0.628500
0.032893 -0.036339 0.628000
0.075586 -0.037160 0.628000
0.078263 -0.037676 0.628400
0.082271 -0.038034 0.628889
0.086420 -0.038052 0.629167
0.089805 -0.038093 0.629833
0.093834 -0.037934 0.630625
0.097395 -0.036512 0.631000
0.110594 -0.036512 0.631000
0.113894 -0.036512 0.631000
0.118019 -0.036512 0.631000
-0.038078 -0.034073 0.628600
0.031251 -0.034697 0.628000
0.032893 -0.034697 0.628000
0.075586 -0.033876 0.628000
0.078080 -0.033890 0.628250
0.081776 -0.034300 0.628250
0.086579 -0.034168 0.628333
0.089615 -0.033903 0.628500
0.093797 -0.033930 0.629000
0.098065 -0.033984 0.630000
0.102345 -0.034038 0.631000
0.106470 -0.033213 0.631000
0.109769 -0.034038 0.631000
0.113894 -0.034038 0.631000
0.118019 -0.034038 0.631000
0.094545 -0.031438 0.628500
0.097870 -0.030629 0.628750
0.102075 -0.029835 0.629333
0.106216 -0.029843 0.629500
0.109874 -0.029611 0.629571
0.113851 -0.030055 0.629625
0.117707 -0.029835 0.629333
0.111711 -0.026487 0.628000
0.114174 -0.026487 0.628000
0.118279 -0.026487 0.628000
0.023298 -0.076592 0.635000
0.025768 -0.076531 0.634500
0.029876 -0.077261 0.633667
0.034090 -0.078252 0.635000
0.037736 -0.076826 0.633500
0.042359 -0.076531 0.634500
0.019977 -0.073271 0.635000
0.022156 -0.074262 0.634000
0.024840 -0.074577 0.632000
0.045533 -0.074636 0.632500
0.049732 -0.074735 0.633333
0.053929 -0.074813 0.634000
0.058096 -0.074015 0.634250
0.061486 -0.073271 0.635000
0.018287 -0.069840 0.634000
0.062071 -0.071329 0.632500
0.066395 -0.070984 0.634333
0.069751 -0.070467 0.634667
0.074098 -0.069289 0.634000
0.078009 -0.068218 0.634333
-0.008248 -0.064969 0.635000
-0.006588 -0.064969 0.635000
0.014996 -0.064969 0.635000
0.016617 -0.065645 0.633500
0.078863 -0.065799 0.632333
0.081920 -0.065489 0.634667
-0.014059 -0.062479 0.635000
-0.009909 -0.062479 0.635000
-0.005758 -0.062479 0.635000
-0.002714 -0.062202 0.635000
0.001714 -0.061649 0.635000
0.005034 -0.061649 0.635000
0.011122 -0.062202 0.635000
0.014148 -0.062405 0.634250
0.016578 -0.063010 0.632000
0.082257 -0.062558 0.633000
0.084730 -0.062479 0.635000
-0.038134 -0.057332 0.635000
-0.033983 -0.057498 0.635000
-0.030165 -0.057332 0.635000
-0.022361 -0.056668 0.635000
-0.017973 -0.057854 0.635000
-0.014045 -0.058268 0.634333
-0.009888 -0.058207 0.633667
-0.005750 -0.058252 0.634167
-0.002436 -0.058298 0.634667
0.001713 -0.058308 0.634778
0.005865 -0.058328 0.635000
0.010015 -0.058328 0.635000
0.014136 -0.058206 0.633667
0.082677 -0.058879 0.632000
0.085426 -0.058237 0.634000
-0.038115 -0.054149 0.634667
-0.033903 -0.054050 0.633500
-0.029777 -0.054078 0.633833
-0.025672 -0.054156 0.634750
-0.022343 -0.054135 0.634500
-0.018177 -0.054078 0.633833
-0.014021 -0.054028 0.633250
-0.009877 -0.054007 0.633000
-0.005742 -0.054028 0.633250
-0.002433 -0.054092 0.634000
0.001711 -0.054078 0.633833
0.005865 -0.054177 0.635000
0.010007 -0.054135 0.634500
0.013846 -0.054283 0.633000
0.085522 -0.054254 0.632667
0.088604 -0.053901 0.635000
-0.038034 -0.049896 0.633333
-0.034009 -0.050153 0.632400
-0.029715 -0.050657 0.632500
-0.025590 -0.050677 0.632750
-0.022554 -0.050946 0.632667
-0.017900 -0.050297 0.632429
-0.014000 -0.049817 0.632333
-0.009872 -0.049843 0.632667
-0.005740 -0.049869 0.633000
-0.002429 -0.049869 0.633000
0.001708 -0.049869 0.633000
0.005849 -0.049896 0.633333
0.009774 -0.050067 0.632875
0.013273 -0.051443 0.632000
0.087057 -0.050169 0.632600
0.090352 -0.049923 0.633667
0.093637 -0.049664 0.634600
0.097988 -0.049184 0.634833
0.102164 -0.049196 0.635000
0.106314 -0.048366 0.635000
0.110189 -0.048920 0.635000
0.113786 -0.048366 0.635000
0.117522 -0.048781 0.635000
-0.037985 -0.045695 0.632500
-0.008209 -0.046485 0.632000
-0.005731 -0.046485 0.632000
-0.002426 -0.046485 0.632000
0.001706 -0.046485 0.632000
0.005837 -0.046485 0.632000
0.008316 -0.046485 0.632000
0.090437 -0.045959 0.632333
0.093566 -0.045731 0.633000
0.097833 -0.045792 0.633833
0.102124 -0.045858 0.634750
0.106314 -0.045876 0.635000
0.110378 -0.045840 0.634500
0.114139 -0.045653 0.634200
0.118194 -0.046013 0.634600
-0.038310 -0.042546 0.632400
0.093456 -0.042371 0.632250
0.097730 -0.042432 0.633167
0.101963 -0.042472 0.633750
0.106417 -0.041892 0.634375
0.110247 -0.042472 0.633750
0.114255 -0.042421 0.633000
0.118393 -0.042421 0.633000
-0.039606 -0.039875 0.632000
0.095897 -0.039875 0.632000
0.098635 -0.038591 0.632600
0.101815 -0.038274 0.632833
0.105720 -0.037802 0.632857
0.109917 -0.038603 0.632800
0.114165 -0.039081 0.632500
0.118206 -0.039049 0.632000
0.106638 -0.034918 0.632000
0.022609 -0.080416 0.639000
0.025930 -0.080353 0.638500
0.030081 -0.080290 0.638000
0.034279 -0.080353 0.638500
0.036811 -0.080416 0.639000
-0.037817 -0.077631 0.639000
-0.035033 -0.077074 0.639000
0.018432 -0.077074 0.639000
0.021398 -0.077930 0.637800
0.025849 -0.078437 0.636500
0.038301 -0.078375 0.636000
0.041715 -0.078540 0.637333
0.045892 -0.077729 0.637500
0.049642 -0.077311 0.637500
0.054184 -0.076833 0.637000
0.057651 -0.077014 0.638500
0.060202 -0.077074 0.639000
-0.038334 -0.074491 0.638333
-0.034030 -0.074067 0.639000
-0.030020 -0.073733 0.639000
-0.026011 -0.073398 0.639000
-0.022502 -0.072897 0.639000
-0.018325 -0.073454 0.639000
-0.014148 -0.074568 0.639000
-0.009971 -0.073733 0.639000
-0.005794 -0.073733 0.639000
0.001725 -0.072062 0.639000
0.005901 -0.072062 0.639000
0.010078 -0.072619 0.639000
0.014255 -0.074568 0.639000
0.017562 -0.074423 0.637750
0.020009 -0.075049 0.636000
0.062145 -0.074811 0.637500
0.065895 -0.073560 0.637500
0.069391 -0.073733 0.639000
0.077745 -0.072062 0.639000
0.081087 -0.072062 0.639000
-0.038307 -0.070269 0.637889
-0.034311 -0.069947 0.638000
-0.029973 -0.069447 0.638000
-0.025803 -0.069447 0.638000
-0.022484 -0.069502 0.638500
-0.018059 -0.069805 0.638000
-0.014118 -0.070245 0.637667
-0.009948 -0.069393 0.637500
-0.005784 -0.069447 0.638000
-0.002451 -0.069529 0.638750
0.001723 -0.069520 0.638667
0.005897 -0.069502 0.638500
0.010293 -0.069758 0.637571
0.014218 -0.070208 0.637333
0.016696 -0.070948 0.636500
0.070840 -0.071836 0.637000
0.074230 -0.071893 0.637500
0.077442 -0.070116 0.636500
0.082077 -0.069571 0.637600
0.085264 -0.068720 0.639000
-0.038254 -0.066007 0.637000
-0.034090 -0.066007 0.637000
-0.029949 -0.066059 0.637500
-0.025803 -0.066110 0.638000
-0.022467 -0.066110 0.638000
-0.018273 -0.066024 0.637167
-0.014087 -0.065929 0.636250
-0.010262 -0.066111 0.636400
-0.005496 -0.066250 0.636667
-0.002445 -0.066007 0.637000
0.001719 -0.066007 0.637000
0.005883 -0.066007 0.637000
0.010044 -0.065990 0.636833
0.013918 -0.066215 0.636333
0.083331 -0.066840 0.637000
0.085932 -0.066085 0.637750
0.090276 -0.065379 0.639000
0.094453 -0.065379 0.639000
0.096959 -0.065379 0.639000
-0.038234 -0.061811 0.636667
-0.034055 -0.061779 0.636333
-0.029910 -0.061811 0.636667
-0.025770 -0.061860 0.637167
-0.022431 -0.061843 0.637000
-0.018458 -0.061991 0.636375
-0.001609 -0.063409 0.636000
0.001716 -0.063409 0.636000
0.006151 -0.062854 0.636000
0.008923 -0.062854 0.636000
0.086663 -0.062676 0.637000
0.090183 -0.061974 0.638333
0.094404 -0.062006 0.638667
0.097744 -0.062006 0.638667
0.101919 -0.062006 0.638667
0.105949 -0.061684 0.638800
0.109908 -0.060784 0.639000
0.114503 -0.060366 0.639000
0.117844 -0.060366 0.639000
-0.038194 -0.058420 0.636000
-0.028217 -0.058420 0.636000
-0.025742 -0.057634 0.636500
-0.022396 -0.058420 0.636000
0.089947 -0.057649 0.636667
0.094195 -0.057702 0.637250
0.098373 -0.057710 0.637333
0.102526 -0.057702 0.637250
0.105900 -0.057725 0.637500
0.110095 -0.057740 0.637667
0.114413 -0.057816 0.638500
0.117752 -0.057816 0.638500
0.091009 -0.054569 0.636333
0.094121 -0.054327 0.636750
0.098322 -0.054348 0.637000
0.102485 -0.054348 0.637000
0.105817 -0.054348 0.637000
0.109980 -0.054348 0.637000
0.114144 -0.054348 0.637000
0.117975 -0.054181 0.637000
0.094841 -0.051768 0.636000
0.098167 -0.051768 0.636000
0.102325 -0.051768 0.636000
0.105917 -0.050486 0.636600
0.109808 -0.051103 0.636000
0.113965 -0.050937 0.636000
0.118530 -0.051136 0.636400
-0.037764 -0.085941 0.642833
-0.034411 -0.085963 0.643000
-0.030449 -0.085483 0.643000
-0.026005 -0.085122 0.643000
-0.021802 -0.085122 0.643000
-0.017599 -0.085122 0.643000
-0.014237 -0.085122 0.643000
-0.010030 -0.085934 0.642778
-0.005828 -0.085090 0.642750
-0.002468 -0.085122 0.643000
0.001735 -0.085079 0.642667
0.005938 -0.085122 0.643000
0.010142 -0.085122 0.643000
0.014504 -0.085574 0.642600
0.017689 -0.085875 0.642333
0.021651 -0.085408 0.642429
0.025819 -0.084798 0.642667
0.029476 -0.084282 0.643000
-0.037641 -0.081474 0.640750
-0.034331 -0.081570 0.641500
-0.030138 -0.081570 0.641500
-0.025945 -0.081570 0.641500
-0.021746 -0.081548 0.641333
-0.017558 -0.081570 0.641500
-0.014203 -0.081570 0.641500
-0.010002 -0.081505 0.641000
-0.005814 -0.081538 0.641250
-0.002464 -0.081633 0.642000
0.001732 -0.081569 0.641500
0.005934 -0.081696 0.642500
0.010125 -0.081633 0.642000
0.014300 -0.081505 0.641000
0.017652 -0.081505 0.641000
0.021415 -0.081893 0.640750
0.026011 -0.082279 0.640500
0.030222 -0.082343 0.641000
0.034440 -0.082408 0.641500
0.038102 -0.081914 0.642000
0.041954 -0.080667 0.641000
0.046253 -0.080856 0.642500
0.049612 -0.080856 0.642500
0.053854 -0.080919 0.643000
0.058057 -0.080919 0.643000
0.060579 -0.080919 0.643000
-0.036761 -0.078868 0.640000
-0.033989 -0.078352 0.640333
-0.030091 -0.078093 0.640500
-0.025914 -0.078123 0.640750
-0.021734 -0.078153 0.641000
-0.017531 -0.078093 0.640500
-0.014181 -0.078093 0.640500
-0.009992 -0.078073 0.640333
-0.005808 -0.078093 0.640500
-0.002460 -0.078153 0.641000
0.001730 -0.078153 0.641000
0.005925 -0.078215 0.641500
0.010112 -0.078174 0.641167
0.014289 -0.078093 0.640500
0.017354 -0.078352 0.640333
0.051093 -0.078868 0.640000
0.054439 -0.078868 0.640000
0.057832 -0.078930 0.640500
0.062461 -0.078395 0.641600
0.066149 -0.078077 0.642667
0.068985 -0.077557 0.643000
0.081595 -0.077557 0.643000
0.085798 -0.078397 0.643000
0.090001 -0.077557 0.643000
0.093363 -0.077557 0.643000
0.105973 -0.077557 0.643000
-0.025047 -0.075521 0.640000
-0.021700 -0.075521 0.640000
-0.018354 -0.075521 0.640000
-0.002458 -0.073887 0.640333
0.001729 -0.074744 0.640500
0.005915 -0.074744 0.640500
0.009762 -0.074876 0.640200
0.066206 -0.075580 0.640500
0.069664 -0.075698 0.641500
0.073876 -0.074881 0.641667
0.078080 -0.074890 0.641750
0.082418 -0.074443 0.641000
0.086436 -0.074022 0.641500
0.089954 -0.074157 0.642667
0.094057 -0.074081 0.642000
0.098331 -0.074138 0.642500
0.101717 -0.074157 0.642667
0.105918 -0.074157 0.642667
0.110008 -0.073858 0.643000
0.113538 -0.072513 0.643000
0.086558 -0.069980 0.640333
0.089721 -0.069773 0.641000
0.093911 -0.069773 0.641000
0.098101 -0.069773 0.641000
0.102291 -0.069773 0.641000
0.106481 -0.069773 0.641000
0.110005 -0.069883 0.642000
0.113494 -0.069964 0.642750
0.117741 -0.069991 0.643000
0.089348 -0.066632 0.640333
0.093346 -0.066736 0.640000
0.098227 -0.066597 0.640000
0.102131 -0.066318 0.640000
0.106399 -0.066370 0.640500
0.109833 -0.066421 0.641000
0.114142 -0.066491 0.641667
0.118352 -0.066500 0.641750
0.107152 -0.063808 0.640000
0.109941 -0.063250 0.640000
0.113905 -0.063004 0.640333
0.118167 -0.063045 0.640750
-0.038330 -0.100699 0.647667
-0.034943 -0.100699 0.647667
-0.013500 -0.100186 0.648000
-0.010111 -0.100186 0.648000
-0.006723 -0.100186 0.648000
-0.038009 -0.097494 0.647000
-0.033780 -0.097494 0.647000
-0.029573 -0.097570 0.647500
-0.026167 -0.096648 0.647000
-0.021523 -0.097109 0.647250
-0.017722 -0.097570 0.647500
-0.014336 -0.097570 0.647500
-0.010096 -0.097494 0.647000
-0.005871 -0.097570 0.647500
-0.002768 -0.097312 0.647667
0.001749 -0.096797 0.648000
0.005979 -0.096723 0.647500
0.010632 -0.097109 0.647250
0.014445 -0.097570 0.647500
0.017831 -0.097570 0.647500
0.020386 -0.096797 0.648000
-0.037936 -0.093929 0.645750
-0.034044 -0.094076 0.645600
-0.029992 -0.093739 0.645600
-0.026147 -0.094038 0.646500
-0.021916 -0.094014 0.646333
-0.017681 -0.093965 0.646000
-0.014303 -0.093965 0.646000
-0.010075 -0.093917 0.645667
-0.005862 -0.094038 0.646500
-0.002483 -0.094110 0.647000
0.001746 -0.094110 0.647000
0.005971 -0.094038 0.646500
0.010197 -0.094038 0.646500
0.014412 -0.093966 0.646000
0.017797 -0.094002 0.646250
0.022058 -0.094159 0.647333
0.026316 -0.093409 0.648000
0.055120 -0.093409 0.648000
0.058509 -0.093409 0.648000
0.062180 -0.093973 0.648000
0.064439 -0.093409 0.648000
-0.037862 -0.090377 0.644500
-0.034492 -0.090377 0.644500
-0.030294 -0.090423 0.644833
-0.026096 -0.090482 0.645250
-0.021870 -0.090446 0.645000
-0.017654 -0.090446 0.645000
-0.014281 -0.090446 0.645000
-0.010057 -0.090377 0.644500
-0.005848 -0.090446 0.645000
-0.002477 -0.090517 0.645500
0.001741 -0.090494 0.645333
0.005957 -0.090446 0.645000
0.010173 -0.090446 0.645000
0.014383 -0.090412 0.644750
0.017748 -0.090377 0.644500
0.021996 -0.090517 0.645500
0.026266 -0.090692 0.646750
0.029660 -0.089882 0.647000
0.033478 -0.088647 0.647250
0.038177 -0.088326 0.648000
0.041565 -0.088326 0.648000
0.046189 -0.088681 0.647500
0.049979 -0.089070 0.647250
0.053978 -0.090094 0.647000
0.058396 -0.090692 0.646750
0.061802 -0.090727 0.647000
0.065820 -0.089671 0.647000
0.070051 -0.088845 0.647667
0.072910 -0.088326 0.648000
0.085618 -0.088326 0.648000
0.089853 -0.088326 0.648000
0.094089 -0.088326 0.648000
0.096631 -0.088326 0.648000
-0.029413 -0.087780 0.644000
-0.026046 -0.087780 0.644000
-0.021836 -0.087780 0.644000
-0.017626 -0.087780 0.644000
-0.014259 -0.087780 0.644000
-0.005839 -0.087780 0.644000
-0.002472 -0.087780 0.644000
0.001738 -0.087780 0.644000
0.005948 -0.087780 0.644000
0.010157 -0.087780 0.644000
0.013525 -0.087780 0.644000
0.022805 -0.087849 0.644500
0.026462 -0.087310 0.644667
0.029545 -0.086163 0.644500
0.033793 -0.085411 0.645167
0.038059 -0.085521 0.646000
0.041969 -0.085404 0.646400
0.046025 -0.085742 0.646400
0.049844 -0.085454 0.645500
0.054274 -0.085768 0.645143
0.058238 -0.086230 0.645000
0.061611 -0.086230 0.645000
0.065862 -0.085431 0.645333
0.070233 -0.085619 0.646750
0.073700 -0.085719 0.647500
0.078260 -0.085536 0.647400
0.082070 -0.085619 0.646750
0.085913 -0.085404 0.646400
0.089997 -0.085769 0.646600
0.093944 -0.085652 0.647000
0.097835 -0.085483 0.647000
0.101989 -0.085901 0.647600
0.105868 -0.085719 0.647500
0.109677 -0.085295 0.647500
0.114421 -0.084937 0.648000
0.042151 -0.082729 0.644000
0.046360 -0.082729 0.644000
0.049805 -0.082857 0.645000
0.053965 -0.082772 0.644333
0.058147 -0.082729 0.644000
0.061859 -0.082253 0.644667
0.065810 -0.081993 0.644833
0.070097 -0.082078 0.645500
0.073587 -0.082205 0.646500
0.077792 -0.082184 0.646333
0.081848 -0.082014 0.645000
0.086065 -0.082014 0.645000
0.090281 -0.082014 0.645000
0.093690 -0.082046 0.645250
0.098022 -0.082142 0.646000
0.102323 -0.082205 0.646500
0.106063 -0.081923 0.645600
0.110252 -0.082362 0.646400
0.114245 -0.082268 0.647000
0.117719 -0.082333 0.647500
0.067409 -0.079361 0.644000
0.070252 -0.078841 0.644333
0.074259 -0.078641 0.645000
0.078415 -0.078581 0.644500
0.081721 -0.079361 0.644000
0.090141 -0.079361 0.644000
0.093508 -0.079361 0.644000
0.097794 -0.078581 0.644500
0.102007 -0.078581 0.644500
0.106236 -0.078762 0.644600
0.110476 -0.078611 0.644750
0.113936 -0.078672 0.645250
0.118169 -0.077839 0.645333
0.111189 -0.075993 0.644000
0.113715 -0.075152 0.644000
0.117924 -0.073468 0.644000
-0.038244 -0.109161 0.651000
-0.035691 -0.109161 0.651000
-0.038186 -0.106444 0.650000
-0.033971 -0.106553 0.650667
-0.029733 -0.104905 0.651000
-0.026329 -0.104054 0.651000
-0.021733 -0.104735 0.651000
-0.018102 -0.105189 0.651000
-0.014130 -0.106324 0.651000
-0.010150 -0.106526 0.650500
-0.005903 -0.106607 0.651000
-0.002215 -0.105189 0.651000
0.001416 -0.104735 0.651000
0.006012 -0.104054 0.651000
0.010511 -0.105270 0.651000
0.014523 -0.105756 0.651000
0.017644 -0.106324 0.651000
0.021842 -0.104735 0.651000
0.026438 -0.104054 0.651000
0.029843 -0.104054 0.651000
0.033247 -0.104054 0.651000
-0.037844 -0.103169 0.649000
-0.033327 -0.102630 0.649167
-0.029665 -0.101268 0.649500
-0.026278 -0.101307 0.649750
-0.022029 -0.101294 0.649667
-0.017610 -0.101793 0.649600
-0.014548 -0.102441 0.649400
-0.010130 -0.102913 0.649167
-0.005715 -0.102377 0.649000
-0.002662 -0.101761 0.649400
0.001754 -0.101294 0.649667
0.006000 -0.101307 0.649750
0.010244 -0.101268 0.649500
0.014479 -0.101189 0.649000
0.017886 -0.102117 0.649500
0.022150 -0.101346 0.650000
0.026418 -0.101424 0.650500
0.029843 -0.101501 0.651000
0.033758 -0.101331 0.651000
0.038353 -0.100650 0.651000
0.041758 -0.100650 0.651000
0.054524 -0.100650 0.651000
0.057928 -0.100650 0.651000
0.062135 -0.100572 0.650500
0.065588 -0.100650 0.651000
-0.026248 -0.098644 0.649000
-0.022854 -0.098644 0.649000
-0.001642 -0.098644 0.649000
0.001752 -0.098644 0.649000
0.005994 -0.098644 0.649000
0.009388 -0.098644 0.649000
0.022454 -0.097965 0.649000
0.026357 -0.097795 0.649000
0.029797 -0.097946 0.650000
0.034081 -0.098046 0.650667
0.038353 -0.098096 0.651000
0.041742 -0.098059 0.650750
0.045588 -0.097671 0.651000
0.050552 -0.097813 0.651000
0.053632 -0.098022 0.650500
0.057795 -0.097871 0.649500
0.061993 -0.097795 0.649000
0.065438 -0.097870 0.649500
0.068709 -0.097813 0.651000
0.090269 -0.097245 0.651000
0.095376 -0.097245 0.651000
0.098213 -0.097813 0.651000
0.102185 -0.098096 0.651000
0.106440 -0.098096 0.651000
0.109844 -0.098096 0.651000
0.114100 -0.097926 0.651000
0.118355 -0.098096 0.651000
0.026357 -0.095250 0.649000
0.029751 -0.094401 0.649000
0.034029 -0.094499 0.649667
0.038295 -0.094547 0.650000
0.041709 -0.094583 0.650250
0.045942 -0.094547 0.650000
0.050171 -0.094511 0.649750
0.053225 -0.094684 0.649000
0.057750 -0.095250 0.649000
0.061144 -0.095250 0.649000
0.066235 -0.094401 0.649000
0.070142 -0.094804 0.650600
0.074383 -0.093274 0.651000
0.077503 -0.092139 0.651000
0.081759 -0.092990 0.651000
0.086014 -0.094692 0.651000
0.090223 -0.094644 0.650667
0.094488 -0.094656 0.650750
0.097854 -0.094620 0.650500
0.102106 -0.094620 0.650500
0.106358 -0.094620 0.650500
0.109981 -0.094153 0.650800
0.114100 -0.094054 0.651000
0.118355 -0.094692 0.651000
0.034333 -0.091177 0.649000
0.038236 -0.091007 0.649000
0.041629 -0.091007 0.649000
0.045532 -0.091177 0.649000
0.050114 -0.091856 0.649000
0.067932 -0.091856 0.649000
0.070797 -0.091337 0.649333
0.073899 -0.090194 0.649250
